# .PCD v0.7 - Point Cloud Data file format
VERSION 0.7
FIELDS x y z rgb
SIZE 4 4 4 4
TYPE F F F F
COUNT 1 1 1 1
WIDTH 86
HEIGHT 1
VIEWPOINT 0 0 0 1 0 0 0
POINTS 86
DATA ascii
-0.31540179 0.097550206 0.8926667 9.3052314e-39
-0.31518793 0.11692567 0.8885963 9.4888996e-39
-0.3161656 0.17177756 0.89262772 9.489617e-39
-0.37731972 -0.2047611 0.94160014 7.2747639e-39
-0.3691259 -0.19527775 0.92868012 7.1836487e-39
-0.36592567 -0.13237205 0.94759041 7.9208536e-39
-0.32421213 0.099363275 0.90400004 8.936446e-39
-0.35438409 0.12542544 0.94507957 9.0279144e-39
-0.33426514 0.12941024 0.91893899 9.2123071e-39
-0.35438886 0.17040874 0.94356352 9.0282717e-39
-0.33326861 0.17272447 0.91709089 9.1204716e-39
-0.35360783 0.20500785 0.94693333 8.9367992e-39
-0.32432231 0.22385207 0.9286387 9.3059488e-39
-0.33034047 0.2752457 0.93656594 9.5825343e-39
-0.32962978 0.3235386 0.9388817 9.583256e-39
-0.32884961 0.35600093 0.93941492 9.3992249e-39
-0.40604797 -0.20942269 0.98814285 7.2758443e-39
-0.39216563 -0.20855977 0.96552777 6.999619e-39
-0.4072161 -0.17543584 0.99321228 7.5524298e-39
-0.39023942 -0.16823478 0.9747014 7.644624e-39
-0.40636644 -0.12777805 0.99138999 8.0130478e-39
-0.38181525 -0.12216391 0.96710455 7.9212137e-39
-0.40450019 -0.058699016 0.99600005 8.2907095e-39
-0.38229752 -0.073750734 0.98100084 8.2899948e-39
-0.40476385 -0.04052965 0.99496162 8.5669391e-39
-0.37599227 -0.035560671 0.97172606 8.4747434e-39
-0.3727265 0.07788609 0.9703691 8.8435203e-39
-0.37115103 0.12634975 0.9700588 8.9357174e-39
-0.37370786 0.17096269 0.97204536 9.027913e-39
-0.36885345 0.22538757 0.97800261 9.0286333e-39
-0.36194617 0.27348909 0.98392642 8.9371635e-39
-0.34153336 0.27187124 0.95708674 8.9371635e-39
-0.36163557 0.32267806 0.98223054 8.8460455e-39
-0.34460506 0.32543704 0.95820022 9.0300766e-39
-0.36176541 0.36764345 0.98673403 8.8456881e-39
-0.34420246 0.35973927 0.96078205 8.8460483e-39
-0.45134512 -0.22914195 1.0478749 6.9067045e-39
-0.43296418 -0.21530569 1.0252491 7.1832885e-39
-0.42912942 -0.17608652 1.0204105 7.5527885e-39
-0.45033896 -0.14119159 1.049 7.8290195e-39
-0.42877692 -0.12368917 1.0228982 8.0134065e-39
-0.42076972 -0.078219861 1.0219203 8.1063224e-39
-0.39607495 -0.079410575 1.0027498 8.1981593e-39
-0.41828042 -0.029116778 1.0273975 8.6587731e-39
-0.39566994 -0.017937299 1.0095333 8.4751022e-39
-0.4158175 0.041664202 1.0372938 8.7516876e-39
-0.41254362 0.064975537 1.0336844 8.7516862e-39
-0.39423066 0.067905694 1.0130005 8.7516876e-39
-0.40912932 0.1282669 1.0329694 9.0271941e-39
-0.39606956 0.12586886 1.0105333 9.0275515e-39
-0.4095358 0.17452092 1.0297643 8.9360775e-39
-0.39588314 0.17495333 1.0077301 8.9364348e-39
-0.40903699 0.22958496 1.0341506 8.8446035e-39
-0.39096993 0.23249546 1.0089997 8.9364362e-39
-0.40516666 0.26079482 1.0417308 8.9371565e-39
-0.38489383 0.27523628 1.0213615 8.9371607e-39
-0.40377301 0.34196657 1.045 8.9378768e-39
-0.3848533 0.3259052 1.0192407 8.8456825e-39
-0.40403232 0.38604152 1.0447576 9.0293577e-39
-0.38514408 0.37320304 1.0234019 9.0297137e-39
-0.40533561 0.40008679 1.0450001 8.9375194e-39
-0.48329309 -0.25290665 1.0916667 6.1716632e-39
-0.47171816 -0.22551116 1.0761632 6.9992588e-39
-0.46616748 -0.17326358 1.0742822 7.7368239e-39
-0.44949037 -0.17902619 1.051 7.5524312e-39
-0.46630129 -0.12407423 1.0748752 7.829737e-39
-0.44749808 -0.1103307 1.0513333 8.1967202e-39
-0.46391466 -0.076595783 1.0793808 8.1981593e-39
-0.44664767 -0.074939862 1.0532157 8.1981579e-39
-0.4596734 -0.024422124 1.0878425 8.5672964e-39
-0.43714729 -0.01579207 1.0660057 8.7509688e-39
-0.45790702 0.025822312 1.0894711 8.659492e-39
-0.43734697 0.021909153 1.0703132 8.6598507e-39
-0.45526385 0.071681328 1.0897837 8.5676551e-39
-0.43704781 0.07701423 1.0694023 8.6594906e-39
-0.45335835 0.11645173 1.0967 8.7520422e-39
-0.43432364 0.12305593 1.0754524 8.7513261e-39
-0.45213544 0.17416051 1.096923 8.660571e-39
-0.43491215 0.17638361 1.0727481 9.0279144e-39
-0.43416089 0.22541738 1.0781838 8.8446035e-39
-0.42421687 0.27621323 1.0765595 8.8449651e-39
-0.41622162 0.3216548 1.0781943 8.9371579e-39
-0.39928401 0.31674641 1.0526667 8.66165e-39
-0.42123187 0.37688285 1.0759737 8.9375208e-39
-0.39808071 0.37235582 1.0530001 9.1215534e-39
-0.43048191 0.40728527 1.0783286 8.8456853e-39
