# .PCD v0.7 - Point Cloud Data file format
VERSION 0.7
FIELDS x y z rgb
SIZE 4 4 4 4
TYPE F F F F
COUNT 1 1 1 1
WIDTH 73
HEIGHT 1
VIEWPOINT 0 0 0 1 0 0 0
POINTS 73
DATA ascii
-0.28825629 -0.30268773 0.77320015 5.8017932e-39
-0.28017211 -0.27555951 0.76341075 5.6177719e-39
-0.20474266 -0.10407929 0.76323086 6.3661662e-39
-0.19482712 -0.10680703 0.75917751 8.20576e-39
-0.20765397 -0.072829962 0.78536713 7.6551043e-39
-0.19754051 -0.082712993 0.78661329 7.3788748e-39
-0.21328387 -0.037998732 0.79079479 9.0329955e-39
-0.19934598 -0.04906632 0.79800004 8.3876205e-39
-0.21721421 0.018530646 0.77526325 1.0874743e-38
0.40863347 0.2479915 0.78820932 4.0645405e-39
0.40453899 0.26025784 0.78218907 4.0656181e-39
-0.21790856 -0.016011003 0.81776577 8.2968738e-39
-0.22392081 0.011040516 0.83441263 8.5734551e-39
0.41916189 0.24173965 0.81018555 5.5396747e-39
0.41343361 0.26866192 0.81000006 9.5001198e-39
-0.2534622 -0.0037795433 0.87746155 8.8514895e-39
-0.24108152 -0.0050939554 0.85742623 6.1860951e-39
-0.23906018 0.0033326286 0.85609698 5.3599358e-39
-0.28309724 0.12917879 0.87809974 8.2007013e-39
-0.28456515 0.16597915 0.88300014 8.5680405e-39
-0.29272777 0.18934304 0.90577781 1.0044247e-38
-0.29921052 0.23508522 0.93186957 9.8591324e-39
-0.28916675 0.2738964 0.93140298 9.7698305e-39
-0.28767085 0.33624229 0.93226475 1.1156377e-38
-0.28967348 0.35501489 0.93457896 1.1064175e-38
-0.12304728 -0.037376437 0.99853867 9.7839429e-39
-0.12289859 0.028019216 0.99411106 9.7839429e-39
-0.12083425 0.05396305 0.99723083 1.0245644e-38
-0.31263286 0.23416159 0.96702152 8.4758378e-39
-0.28235355 0.24383511 0.98907542 7.0925489e-39
-0.27416915 0.25745898 0.96945632 7.4620516e-39
-0.23486695 0.28217888 0.98387605 9.402857e-39
-0.22470202 0.3117362 0.98966801 9.7759696e-39
-0.53786534 -0.38512731 1.0459524 5.5277301e-39
-0.12159831 -0.060315594 1.0041389 1.0152372e-38
-0.12274326 -0.025442174 1.0074053 1.0244562e-38
-0.39469501 0.046838801 1.024 8.9350069e-39
-0.13222045 0.040295817 1.0024202 9.8710827e-39
-0.11919774 0.079421006 1.0056099 1.0798819e-38
-0.31290463 0.22602507 1.030329 7.7400749e-39
-0.26810944 0.23672144 1.0163188 8.5665985e-39
-0.22734751 0.24230859 1.0342001 6.7237705e-39
-0.18495755 0.24422862 1.0353574 6.54118e-39
-0.14191592 0.24993826 1.049 8.8482259e-39
-0.21982867 0.26608542 1.0096025 8.2936186e-39
-0.17509934 0.28337598 1.0217921 1.0232258e-38
-0.12146156 0.28433537 1.0383849 1.041954e-38
-0.097991198 0.29398322 1.041353 1.0235873e-38
-0.20541522 0.31106728 1.0059359 9.6826893e-39
-0.18198192 0.30957597 1.0118117 1.0050393e-38
-0.55354029 -0.42234471 1.0803638 5.6188621e-39
-0.54130465 -0.41365352 1.0772775 5.6192096e-39
-0.53896219 -0.39071944 1.0723306 5.7114053e-39
-0.55706412 -0.32393625 1.090289 7.6464247e-39
-0.54595804 -0.32426271 1.092 7.2783638e-39
0.28775683 -0.15837866 1.0955408 2.1204953e-39
0.30319509 -0.16140236 1.0971035 1.7517142e-39
0.28835246 -0.14715479 1.096625 2.7665864e-39
0.3009198 -0.14867875 1.098 1.8442671e-39
0.56182176 -0.13550241 1.0842584 3.3204748e-39
-0.13024062 0.1603162 1.0650001 6.9208309e-39
-0.32296902 0.22909446 1.0793329 6.0809165e-39
-0.27761659 0.22991687 1.077407 9.583263e-39
-0.22290742 0.22925176 1.0597663 9.3056055e-39
-0.17233451 0.23396221 1.0755277 7.2780289e-39
-0.12929316 0.24084929 1.0808886 6.9110499e-39
-0.089975119 0.24350621 1.0908573 7.7415308e-39
-0.39928356 0.29042327 1.0536667 8.8449721e-39
-0.15447865 0.27527624 1.0510001 9.8631191e-39
-0.1091189 0.27529559 1.0554525 1.0417736e-38
-0.0808689 0.28043789 1.0825884 1.0603212e-38
-0.045135226 0.27126488 1.0965556 1.143225e-38
-0.090327516 0.30181223 1.087 1.0143677e-38
