# .PCD v0.7 - Point Cloud Data file format
VERSION 0.7
FIELDS x y z rgb
SIZE 4 4 4 4
TYPE F F F F
COUNT 1 1 1 1
WIDTH 316
HEIGHT 1
VIEWPOINT 0 0 0 1 0 0 0
POINTS 316
DATA ascii
-0.17133842 -0.076570317 0.34274372 7.4624202e-39
-0.16542405 0.12152985 0.34067711 2.2184671e-39
-0.14954334 0.13418451 0.34900001 2.2127105e-39
-0.17287301 -0.15274107 0.39667058 6.6333798e-39
-0.17390281 -0.12556203 0.37761685 6.725574e-39
-0.17201969 -0.093165964 0.35439596 7.0017994e-39
-0.20214652 0.083556756 0.39568546 2.1244638e-39
-0.18664873 0.093379237 0.38747561 2.4932491e-39
-0.16335374 0.11398814 0.36996096 2.9560349e-39
-0.13536161 0.13947015 0.37432024 3.0467886e-39
-0.11138346 0.15136591 0.39664006 3.4148495e-39
-0.16398078 -0.15672538 0.40219843 7.3702232e-39
-0.14899702 -0.15924184 0.40792856 1.0787231e-38
-0.15174115 -0.14888121 0.40000001 9.7741465e-39
-0.21073474 0.069999166 0.42837951 2.4928875e-39
-0.18427274 0.085062221 0.42167088 3.6939615e-39
-0.15894124 0.11314562 0.41641396 5.1708964e-39
-0.11770372 0.14895719 0.40592128 3.415204e-39
-0.031887848 0.14508979 0.44717765 9.9499001e-39
-0.10634635 0.1553936 0.41286203 3.6917923e-39
-0.094533652 0.16401528 0.43222806 3.6907105e-39
-0.034495015 0.15831095 0.44595379 9.1208611e-39
-0.25275853 0.043168444 0.49492592 2.3085005e-39
-0.24039793 0.047221188 0.48969376 2.5854433e-39
-0.21879908 0.058383755 0.47317648 2.9545874e-39
-0.185689 0.081194609 0.46852607 4.8010307e-39
-0.10145378 0.09616372 0.49836004 1.0783286e-38
-0.098283418 0.097041771 0.49897361 1.0137552e-38
-0.039928555 0.08553271 0.48956791 8.7502835e-39
-0.16959836 0.10197986 0.45680007 6.0928569e-39
-0.10515863 0.1334431 0.48607093 8.9382817e-39
-0.077017426 0.13103499 0.4916845 7.0921985e-39
-0.041286033 0.12571147 0.46728873 7.1851158e-39
-0.11255784 0.16371088 0.48137897 5.3433696e-39
-0.075269692 0.16591325 0.47857663 5.3433668e-39
-0.043272503 0.1641537 0.45822045 6.0798529e-39
0.28337187 -0.10345319 0.54701924 4.6097114e-40
0.27330625 -0.070098788 0.54414523 3.6949578e-40
-0.083310775 -0.0037787776 0.54662567 8.6617061e-39
-0.040095922 -0.0064570867 0.54053634 9.2123505e-39
0.2442926 -0.017035468 0.54382849 3.6949578e-40
0.26402 -0.025573026 0.53635854 6.4680154e-40
-0.26749569 0.028675096 0.53638077 2.307776e-39
-0.23617488 0.044401824 0.52135676 3.1393388e-39
-0.073016115 0.027480926 0.53535479 7.9219648e-39
-0.041827377 0.025692949 0.52215272 8.8424806e-39
0.19855836 0.047494613 0.54761529 4.6169561e-40
0.22950292 0.027842617 0.54127806 1.1996138e-39
0.26418516 0.016079351 0.53816366 3.1357206e-39
-0.21187416 0.059354939 0.52209252 4.5233592e-39
-0.194371 0.074112251 0.50990278 5.2609229e-39
-0.10038184 0.072835617 0.51314288 1.0047885e-38
-0.075049907 0.075752899 0.51578432 7.7375679e-39
-0.044128269 0.066225819 0.50677639 8.4729736e-39
0.19085467 0.076954596 0.54513294 9.2266956e-40
0.21466257 0.067114696 0.54413617 2.3056012e-39
-0.071699381 0.10918213 0.50347871 6.9992784e-39
-0.049775038 0.10044807 0.5 7.7354043e-39
0.18815885 0.11972951 0.54624683 1.7520687e-39
0.21248221 0.14123413 0.54584324 2.3056012e-39
0.26789191 0.1341708 0.53352314 2.0315395e-39
-0.15648738 0.178037 0.53825349 4.3299422e-39
-0.13938305 0.1720888 0.51547855 4.6068878e-39
0.23158669 0.16297473 0.54517227 1.8460636e-39
0.26525423 0.16711885 0.54157144 3.7850585e-39
0.1329436 -0.2301755 0.59541667 1.1338262e-38
0.17062533 -0.22207697 0.59736753 1.1154225e-38
0.23354906 -0.22212474 0.59053701 1.1342212e-38
0.28006321 -0.21817677 0.58921534 8.9454872e-39
0.3027859 -0.21208636 0.5874868 5.0721932e-39
0.28557563 -0.17307736 0.58605236 1.1999739e-39
0.30245772 -0.18697767 0.58667338 1.1085014e-39
-0.068130843 -0.10428423 0.59598041 9.7716732e-39
-0.038477231 -0.10676929 0.59289068 9.6780258e-39
0.24546593 -0.11752968 0.59403944 3.6913705e-40
0.27135256 -0.12572256 0.57466686 3.6949578e-40
-0.065195329 -0.072989061 0.5817039 9.680558e-39
-0.042039499 -0.074815877 0.57938474 1.0233732e-38
0.23440155 -0.068333879 0.57745188 4.6133128e-40
0.26026732 -0.081739083 0.55950809 3.6949578e-40
-0.30324534 -0.0083357245 0.5941599 2.9520692e-39
-0.27960569 -0.0040152413 0.58631968 3.5985176e-39
-0.067986012 -0.025251923 0.56021452 8.2918375e-39
-0.042481571 -0.029238293 0.55839378 9.0297627e-39
0.19787891 -0.030426903 0.59485525 9.2158916e-40
0.22352332 -0.026445959 0.56698948 6.453624e-40
0.25273907 -0.028356465 0.55091816 1.8510592e-40
-0.26356131 0.016609674 0.56817037 3.4155697e-39
-0.24052429 0.038817246 0.57572621 3.8776283e-39
-0.060326677 0.0041329125 0.55104655 7.7368477e-39
0.19186409 0.040419757 0.57930887 4.6097254e-40
0.21374987 0.016979652 0.57123637 3.6913705e-40
0.27698749 0.038135029 0.56258935 2.582907e-39
0.30414107 0.043516878 0.58875006 4.1516788e-39
-0.22170128 0.052614 0.56278658 5.0768889e-39
0.17416605 0.07596413 0.5737353 5.5352691e-40
0.23282158 0.080091447 0.56006962 2.6743851e-39
0.26594335 0.0654817 0.57701391 2.952051e-39
0.14465977 0.12590915 0.59783787 1.1067007e-39
0.16953319 0.12628359 0.57692689 8.3011239e-40
0.22522022 0.12459771 0.56880558 1.5680362e-39
0.25279361 0.14365426 0.5903036 1.6616695e-39
-0.16955882 0.1890423 0.55580002 5.06678e-39
0.14840901 0.15210722 0.59472722 3.7836138e-39
0.18031041 0.17064065 0.57960486 1.9371802e-39
0.22153023 0.18101156 0.56144869 1.3843652e-39
0.27026764 0.18650769 0.55765092 4.5222606e-39
0.19364268 0.20639588 0.59190941 7.2809114e-39
0.22544748 0.20860024 0.56894988 3.1368038e-39
0.27496576 0.21171844 0.57178569 4.9821583e-39
0.30525032 0.2207865 0.59198475 4.0630929e-39
-0.21868341 -0.23712294 0.63617462 1.0418094e-38
-0.18646239 -0.23263825 0.63872772 1.1063466e-38
-0.05812186 -0.21661815 0.63522524 8.2014384e-39
-0.037774749 -0.21625084 0.62870538 8.2932711e-39
0.18362366 -0.20593707 0.62518603 1.0232623e-38
0.22456633 -0.20868443 0.60946429 8.1106693e-39
0.26661313 -0.20895571 0.60374516 4.9796374e-39
-0.060931485 -0.17427619 0.6305064 8.8432036e-39
-0.038671635 -0.1755926 0.62826508 8.5666154e-39
0.19410875 -0.19475658 0.63791353 1.0510292e-38
0.22811554 -0.18324418 0.626221 5.158963e-39
0.26780686 -0.17933899 0.61673909 1.5676746e-39
-0.062535413 -0.12704241 0.60889828 9.2148784e-39
-0.039999399 -0.13120045 0.60766542 9.1219583e-39
0.19641112 -0.10430688 0.64528924 1.383289e-39
0.2270202 -0.12200832 0.62234688 6.4608267e-40
0.25149691 -0.14814603 0.60268188 5.5424437e-40
0.18293631 -0.070257545 0.63611203 1.0152295e-39
0.21463974 -0.081859328 0.61337477 6.4572254e-40
-0.31472948 -0.013897743 0.62908119 2.8573415e-39
-0.29314747 -0.0091904681 0.60700011 3.0446208e-39
0.14267014 -0.016872022 0.63427228 2.305974e-39
0.17650923 -0.025507485 0.62562382 9.2231083e-40
0.20781726 -0.010497276 0.61201364 3.6913705e-40
-0.25721848 0.016882429 0.61906737 4.7063085e-39
-0.24173871 0.03499094 0.61420822 5.2594795e-39
0.13786268 0.02615596 0.62244582 1.5684061e-39
0.17583475 0.023784678 0.62670094 5.5352691e-40
0.20591542 0.0074252663 0.61075401 3.6877691e-40
0.30616909 0.049443372 0.60080004 4.4275426e-39
0.13885073 0.073310547 0.60954493 1.0145079e-39
0.16091959 0.06782639 0.6128633 5.5352691e-40
0.28355241 0.086366981 0.61826444 3.597782e-39
0.31755522 0.078942232 0.63330835 1.6623954e-39
0.13699597 0.11992752 0.60214442 1.3836505e-39
0.15079209 0.10006696 0.60000002 7.3648043e-40
0.24851084 0.11263197 0.60158825 2.4910799e-39
0.27762768 0.12472451 0.6279909 3.0438837e-39
0.30847597 0.12000357 0.64657706 2.8605757e-39
0.17745158 0.19816034 0.60074997 8.0138003e-39
0.28080449 0.15440202 0.62184125 1.2928912e-39
0.17688543 0.20315689 0.61100006 8.6631256e-39
0.22116248 0.24343401 0.63625795 4.4282797e-39
0.31174707 0.23047407 0.60107142 4.4297118e-39
-0.30008289 -0.20196846 0.69900006 8.3862066e-39
-0.26685777 -0.21469976 0.68078941 8.8493203e-39
-0.22650892 -0.21682602 0.67143446 1.0325539e-38
-0.18640491 -0.2117006 0.67014509 1.1339697e-38
-0.335282 -0.15029694 0.69900006 6.2678637e-39
-0.18347606 -0.19823696 0.69588012 1.1340054e-38
0.14929149 -0.16971287 0.6925 1.1524464e-38
0.18768078 -0.17658411 0.6763438 1.0695413e-38
0.22265817 -0.1669424 0.67350912 4.7008799e-39
0.25032309 -0.17117691 0.65100002 2.2123182e-39
-0.34292662 -0.11887728 0.67864448 7.742621e-39
0.19097191 -0.11406505 0.67172605 2.0297472e-39
0.2131864 -0.13668832 0.67136902 2.0290199e-39
-0.35700378 -0.066004604 0.69350004 7.3759993e-39
-0.3435019 -0.098401479 0.66828579 7.9288172e-39
0.17505546 -0.090591468 0.65944386 1.8460734e-39
-0.35298243 -0.03075844 0.6920715 3.5941862e-39
-0.33375257 -0.023321405 0.68056136 3.1335654e-39
-0.26995379 0.014604591 0.67022824 5.9930775e-39
0.33704701 0.099957637 0.65000004 9.2446602e-40
0.3219949 0.11305489 0.65273529 1.3858043e-39
-0.30237111 -0.20083995 0.70300001 8.4783854e-39
-0.27568829 -0.20296611 0.70399612 8.8489616e-39
-0.22282255 -0.20161769 0.70175183 1.0786517e-38
-0.19741435 -0.20093352 0.70133334 1.106311e-38
-0.31861874 -0.1834451 0.73240656 7.8344509e-39
-0.27541041 -0.1863807 0.72891885 8.5727362e-39
-0.22843678 -0.18955263 0.71795905 1.0970551e-38
-0.19278079 -0.19255391 0.7077142 1.1339697e-38
0.090845808 -0.15319432 0.72900003 1.1524099e-38
0.18601896 -0.15681665 0.7095235 1.0787253e-38
0.2046634 -0.15613802 0.70606971 8.4830769e-39
-0.35375607 -0.13450266 0.71562499 8.2940082e-39
-0.3440648 -0.1430023 0.70651358 7.5564333e-39
0.1874751 -0.1346786 0.72118872 9.7734598e-39
0.20453458 -0.14451508 0.70832992 8.575274e-39
-0.36378294 -0.054306332 0.70919448 8.0184863e-39
0.17959154 -0.097768717 0.70100003 2.766599e-39
-0.36327851 -0.040413812 0.71216166 6.7281118e-39
-0.31710562 -0.012955402 0.73028797 5.4398981e-39
-0.30565795 0.0026595627 0.73664707 5.1651161e-39
-0.29225877 0.0094206585 0.72424996 6.6380825e-39
-0.35404846 -0.1618322 0.78047496 9.0337172e-39
-0.32632893 -0.16473657 0.77093297 8.4809021e-39
-0.2802006 -0.16255113 0.76494002 9.9560378e-39
-0.24461535 -0.1661368 0.75000006 1.1342575e-38
-0.3574225 -0.14375143 0.79100007 1.1343301e-38
-0.32650054 -0.14547847 0.78909165 1.0418819e-38
-0.28784737 -0.14631683 0.7897566 1.0786522e-38
0.18149614 -0.094532698 0.76083344 1.1249659e-38
-0.30065706 -0.0040768553 0.75000006 7.8344607e-39
-0.29767677 -0.0027893425 0.75541937 8.296878e-39
-0.30302879 0.015152714 0.78984916 7.0054119e-39
-0.29734549 0.0072447746 0.76611549 6.9135806e-39
-0.2872 0.14187925 0.79130018 4.246408e-39
-0.27947441 0.1614819 0.79361188 4.9814549e-39
-0.2330859 0.18877944 0.78930914 9.8587905e-39
-0.25070822 0.21114798 0.77060002 9.9527952e-39
-0.23418412 0.20804103 0.77424848 9.2130554e-39
-0.41435662 -0.13585395 0.83928019 1.042026e-38
-0.31874311 -0.13354911 0.82015836 1.1248223e-38
-0.2903212 -0.13599892 0.81494349 1.1154944e-38
-0.30666426 0.028170416 0.83237875 7.281287e-39
-0.29740781 0.025118675 0.84343892 8.8475351e-39
-0.30604038 0.071530588 0.81914169 6.0863549e-39
-0.29075325 0.079676948 0.82587683 7.7451532e-39
-0.30281177 0.11252061 0.81148332 3.6006812e-39
-0.28256103 0.12298855 0.81701148 5.3513164e-39
-0.24296063 0.13365243 0.83473241 1.1242451e-38
-0.27759331 0.16548093 0.81046879 7.2877876e-39
-0.23451589 0.16573039 0.81399494 1.1057334e-38
-0.45459205 -0.10577353 0.89058459 1.0048592e-38
-0.43188286 -0.11839622 0.87040526 1.0142953e-38
-0.3031306 -0.11938056 0.85100001 1.1248596e-38
-0.45794865 -0.098927014 0.89750004 9.9574727e-39
-0.30001292 0.028062329 0.85000008 8.9447628e-39
-0.29333726 0.02915711 0.85497588 9.7716494e-39
-0.28539866 0.058053959 0.85775012 1.1335019e-38
-0.2480177 0.084485933 0.8662501 1.1523009e-38
-0.24396975 0.10917383 0.8530001 1.1336086e-38
-0.44413373 -0.10026801 0.90300006 1.0787243e-38
-0.45917216 -0.078409977 0.92356491 1.0235147e-38
-0.44504833 -0.08615052 0.92125273 1.1156026e-38
0.16044 0.11152326 0.94622231 7.5549858e-39
0.09901417 0.24451706 0.92412508 1.1425402e-38
0.10943419 0.22901931 0.9315924 1.08715e-38
0.098330945 0.25758785 0.91125727 1.1241725e-38
0.10423306 0.25736493 0.90676695 1.0963699e-38
0.15550551 0.26672989 0.93200004 9.2163274e-39
-0.46262324 -0.057206508 0.96380073 1.0141148e-38
-0.44095683 -0.059703786 0.96842766 1.0511014e-38
-0.46217635 -0.045368429 0.97942543 6.1763841e-39
-0.42895961 -0.038951825 0.98338443 8.2976025e-39
-0.39746392 -0.042981703 0.98550004 1.0969115e-38
-0.25073206 -0.024791541 0.96300006 1.1429737e-38
-0.23688714 -0.042034823 0.9583711 1.1245699e-38
-0.065812789 -0.017796619 0.98366666 1.0225785e-38
0.13032925 0.1435318 0.99635863 1.1240283e-38
0.16341366 0.1306145 0.96675873 7.4617027e-39
0.12223636 0.17712975 0.97698194 1.0963336e-38
0.16437082 0.17505266 0.96924746 4.8816782e-39
0.088968664 0.24238464 0.98350006 1.1156394e-38
0.11410869 0.20535158 0.95418513 1.1055171e-38
0.16459748 0.22469831 0.97465867 6.4522522e-39
0.16455366 0.26003051 0.97776002 8.204681e-39
-0.40608758 -0.014534953 1.0144413 9.3121089e-39
-0.39066392 -0.00058549078 1.042125 9.3113887e-39
-0.37444371 0.0055249743 1.0483636 8.3876359e-39
0.14339826 0.092960753 1.0453557 1.1333919e-38
0.13477594 0.12067123 1.0191363 1.1149166e-38
0.10706906 0.18864349 1.0391428 6.2667889e-39
0.10482982 0.20003504 1.029 8.2943529e-39
0.17816024 0.23749627 1.0155948 4.7055785e-39
0.089496791 0.25356337 1.02575 6.9168471e-39
0.17485337 0.27630883 1.0219089 7.4692838e-39
0.1814964 0.30219337 1.0470001 7.9317207e-39
-0.36634886 0.011860372 1.0593704 9.3110285e-39
0.14079249 0.067700341 1.0610095 1.0782554e-38
0.15096822 0.056951925 1.0558463 1.1059143e-38
0.11980881 0.12938322 1.0755001 8.4801889e-39
0.11091044 0.17803687 1.0764345 4.0580553e-39
0.10674532 0.2114246 1.077087 4.3342806e-39
0.18693095 0.28337398 1.0682044 7.5639933e-39
0.20779069 0.27921075 1.0960001 1.0607887e-38
0.19111468 0.30991429 1.0922501 7.5636472e-39
-0.076261729 0.056706667 1.107 1.0317255e-38
0.11962935 0.1366605 1.1173999 9.0348116e-39
0.09517704 0.19204137 1.1409745 3.5056116e-39
0.10939295 0.18059991 1.1248037 3.5052472e-39
0.098891526 0.20101669 1.1440001 3.2297449e-39
0.10509721 0.2081254 1.1240346 3.3222951e-39
0.091983639 0.28248489 1.1390001 9.222821e-39
0.19777669 0.28940865 1.105077 6.7356718e-39
0.21090029 0.29090312 1.110889 7.5657912e-39
0.19704159 0.31467313 1.1119168 7.5643675e-39
0.22244087 0.32210806 1.1197852 7.4718075e-39
0.25161776 0.34174129 1.133 6.9193596e-39
0.12057026 0.14492908 1.176 1.0787616e-38
0.087966353 0.19007339 1.1748303 3.4141348e-39
0.1114149 0.17707378 1.172194 5.8072597e-39
0.088708811 0.2091798 1.1796346 4.1502551e-39
0.1060643 0.22715613 1.1720726 2.9535112e-39
0.09195888 0.28328359 1.1817274 7.0065232e-39
0.10377706 0.26345828 1.1825862 3.1393388e-39
-0.087326266 0.14297545 1.2356668 1.0224333e-38
0.080768719 0.18168177 1.2307099 4.3364512e-39
0.11999394 0.16635014 1.2126 9.4035983e-39
0.079821631 0.23045547 1.2244813 4.8878201e-39
0.10375453 0.24052443 1.2122324 2.9527923e-39
0.089309156 0.26586488 1.2110572 4.4275664e-39
0.10283682 0.25993541 1.2121631 3.1382584e-39
-0.091659747 0.15200186 1.2580001 9.671521e-39
0.043355815 0.18585876 1.2591624 6.364039e-39
0.067469634 0.17860703 1.2541449 6.7317383e-39
0.047299221 0.2044622 1.2572223 7.0101273e-39
0.055536274 0.20893231 1.2535005 5.5357161e-39
-0.092388511 0.18498978 1.314 1.068603e-38
-0.10796139 0.22219951 1.372231 8.7510024e-39
-0.1025906 0.24649759 1.4050001 1.0778226e-38
-0.11236428 0.26758572 1.4263333 9.0265089e-39
-0.12204158 0.32523426 1.5560001 8.3825884e-39
