# .PCD v0.7 - Point Cloud Data file format
VERSION 0.7
FIELDS x y z rgb
SIZE 4 4 4 4
TYPE F F F F
COUNT 1 1 1 1
WIDTH 54
HEIGHT 1
VIEWPOINT 0 0 0 1 0 0 0
POINTS 54
DATA ascii
-0.24134056 -0.28439522 0.79781246 1.1335018e-38
0.34771115 -0.27651185 0.79828566 1.0972737e-38
0.3740049 -0.26156527 0.77968252 1.0697214e-38
0.38251525 -0.2355327 0.78270805 8.0242666e-39
0.40128434 -0.22563587 0.76866674 7.7523713e-39
-0.3686161 0.12320949 0.76517695 2.0409478e-39
-0.32926923 0.12356351 0.76378822 1.1110503e-39
-0.35782388 0.16639458 0.78489184 1.3926945e-39
-0.33408847 0.16367675 0.78444237 1.1110503e-39
-0.24493815 -0.3111617 0.81130767 1.0789051e-38
0.29033396 -0.30729797 0.84164804 1.0878374e-38
0.30232584 -0.30138615 0.82990909 1.0422781e-38
-0.25900772 -0.28626209 0.82215071 1.0599252e-38
-0.24599245 -0.28663722 0.8083638 1.0876196e-38
0.29496738 -0.27984342 0.84350002 8.5759956e-39
0.32564443 -0.27755278 0.81492954 9.9582154e-39
0.36020431 -0.25155261 0.81865031 8.3923247e-39
0.33761132 -0.24719444 0.80318183 7.9313507e-39
0.36594227 -0.24793167 0.81605875 7.7480399e-39
-0.35088888 0.18929185 0.80266666 1.3937679e-39
-0.33849838 0.18587288 0.80331755 1.0202952e-39
0.059326366 -0.35026097 0.89700001 1.1239161e-38
-0.32071745 -0.32976118 0.87214208 1.0137573e-38
0.046242476 -0.32907915 0.86493474 1.0132491e-38
0.060216527 -0.33215624 0.87215281 9.0286683e-39
0.26756242 -0.31911936 0.85936779 1.0880889e-38
0.27837485 -0.2904667 0.86342233 7.6529632e-39
0.073195457 -0.36133823 0.92674464 1.0319039e-38
-0.27133146 -0.30237487 0.90700012 1.1425041e-38
0.069677986 -0.34830284 0.90200001 1.022684e-38
0.090635322 -0.38140869 0.97574466 9.5836484e-39
0.1158769 -0.37919214 0.98332798 9.4954156e-39
-0.33763003 -0.32443058 0.96088004 1.0229399e-38
-0.31638074 -0.28819409 0.98073053 7.1858585e-39
0.50930887 0.33732703 0.98975152 8.9498284e-39
0.47995275 0.36122665 0.97381878 8.2104613e-39
-0.3363007 -0.30064109 1.0020001 1.0969465e-38
-0.33373594 -0.26784533 1.0226156 7.7390267e-39
-0.35393271 -0.22576545 1.0446842 1.0415595e-38
-0.523332 -0.17488694 1.0170001 1.1151358e-38
-0.32196704 -0.18858802 1.0351927 7.4660636e-39
0.49404803 0.29100537 1.0413231 1.0052924e-38
0.52448368 0.28795063 1.0388147 9.0441933e-39
0.49365175 0.31501248 1.0165155 9.0398549e-39
0.51701349 0.31429872 1.0207874 8.8590846e-39
-0.3136695 -0.25156295 1.0841252 9.7745486e-39
-0.35924837 -0.18531191 1.0893166 1.0694347e-38
-0.33377472 -0.18311869 1.0722868 7.5600571e-39
0.47938207 0.24660291 1.0954547 1.0514632e-38
0.53500408 0.2484777 1.0953192 8.8594447e-39
0.56885111 0.24874502 1.0937333 9.6866872e-39
0.49237585 0.2688069 1.0775598 1.0514986e-38
0.52617276 0.26775011 1.0724967 9.5040938e-39
0.55684447 0.25542113 1.0802799 9.3193424e-39
