# .PCD v0.7 - Point Cloud Data file format
VERSION 0.7
FIELDS x y z rgb
SIZE 4 4 4 4
TYPE F F F F
COUNT 1 1 1 1
WIDTH 80
HEIGHT 1
VIEWPOINT 0 0 0 1 0 0 0
POINTS 80
DATA ascii
-0.055047326 -0.0016146986 0.79760009 9.8627604e-39
-0.032198388 -0.0036381688 0.7951439 9.3099537e-39
0.032703687 -0.004517586 0.79323053 9.6794607e-39
0.089340009 -0.0088497233 0.79142493 1.0509946e-38
0.12277123 -0.0090977214 0.79031253 1.0971286e-38
0.15865193 -0.0057812696 0.7869724 1.1432629e-38
0.235633 -0.00074186554 0.76500005 1.161882e-38
0.25766867 -0.0004269862 0.76000005 1.1710655e-38
0.32609287 -0.0050130454 0.76900005 1.1621697e-38
-0.26113886 0.04444138 0.7930789 8.6685528e-39
-0.22920592 0.043195844 0.79492313 7.7465951e-39
-0.1607856 0.037185717 0.79301208 7.9273738e-39
-0.12569349 0.029206231 0.78144073 8.5713083e-39
-0.072278596 0.02707037 0.77592838 9.2159602e-39
-0.024316836 0.025707344 0.77700126 8.9408125e-39
0.024994159 0.023611143 0.76830125 9.4943492e-39
0.071581066 0.020624163 0.76698595 1.0231197e-38
0.12672006 0.014086867 0.78737617 1.0877648e-38
0.1729438 0.021501137 0.77638537 1.1247152e-38
0.36815721 0.036463346 0.75896037 1.0235206e-38
-0.26616648 0.063068435 0.78332299 1.0231546e-38
-0.21984741 0.075499095 0.76873189 6.639879e-39
-0.17759421 0.070804179 0.77041525 6.8228241e-39
-0.1266381 0.064015955 0.76495838 8.1110462e-39
-0.15145743 -0.050992012 0.84800005 7.6522317e-39
-0.12036653 -0.051900502 0.84600019 8.5713055e-39
-0.091893084 -0.052573327 0.84486365 1.0135756e-38
-0.015378385 -0.056891885 0.84900033 9.0340927e-39
0.032200295 -0.057184681 0.84044391 9.7730983e-39
0.068625987 -0.065819874 0.8443836 1.0879089e-38
0.10257266 -0.053526849 0.83033341 1.1617022e-38
-0.25862315 -0.013633471 0.84004593 1.1250033e-38
-0.21430731 -0.021781305 0.84088892 9.034813e-39
-0.17445409 -0.022951314 0.83119661 8.112128e-39
-0.12551072 -0.024249939 0.82448459 8.2036048e-39
-0.07552813 -0.020628352 0.82211608 8.9400922e-39
-0.021342129 -0.023422958 0.82268173 9.1255639e-39
0.023692001 -0.026828265 0.81603181 1.0047885e-38
0.069730617 -0.021886302 0.81697232 1.060178e-38
0.12621024 -0.028344667 0.81964213 1.1524462e-38
0.15110932 -0.029960496 0.82533336 1.161882e-38
-0.26118895 0.014825589 0.82184631 9.4997582e-39
-0.2169129 0.024423206 0.82454789 7.4692809e-39
-0.18078409 0.022278579 0.81707746 7.7437028e-39
-0.13181184 0.0055316687 0.80680984 8.6635039e-39
-0.084275529 0.0024187253 0.80360013 1.0228673e-38
-0.0029733772 0.00085197017 0.8016001 9.9538868e-39
0.0015818777 0.0008513325 0.80100006 9.7698543e-39
0.069086209 0.0017999538 0.80263644 1.0049329e-38
-0.21130046 0.05259563 0.80332375 6.6398734e-39
-0.19202709 0.05162276 0.80261308 6.5465974e-39
-0.21045265 -0.10116308 0.89792317 9.3117628e-39
-0.11819493 -0.10436039 0.89487475 8.2975969e-39
-0.078831896 -0.10792346 0.89283073 9.0340871e-39
-0.017977023 -0.10738949 0.89352834 9.7730969e-39
0.012934856 -0.11041527 0.88740605 1.0234075e-38
0.060902219 -0.11205119 0.86786437 1.1433344e-38
-0.21173383 -0.073848695 0.88436639 8.9436978e-39
-0.17462465 -0.072462305 0.8737815 7.8373404e-39
-0.12787548 -0.073467068 0.87268406 8.4805504e-39
-0.070686549 -0.073325232 0.86675012 9.4010718e-39
-0.024810787 -0.073283657 0.86373389 9.4950695e-39
0.018134305 -0.078348309 0.86102629 1.0233358e-38
0.064333424 -0.072773613 0.85066658 1.0970923e-38
-0.26121005 -0.023870049 0.85050005 1.1434427e-38
-0.2118023 -0.047705058 0.85436761 8.7593065e-39
-0.18044803 -0.047757708 0.8530975 7.7451434e-39
-0.12396862 -0.048120737 0.85000008 7.5603948e-39
-0.061721906 -0.042792391 0.85615247 8.6645829e-39
-0.036341917 -0.045796189 0.85457003 8.3890778e-39
0.078720041 -0.048078552 0.85036367 1.0878007e-38
-0.20979013 -0.12396377 0.92483348 9.2202833e-39
-0.19206825 -0.11729775 0.92908794 8.2057656e-39
-0.11392941 -0.11577719 0.90419459 8.3901568e-39
-0.071672127 -0.12163009 0.90442681 9.3113957e-39
-0.033618655 -0.11355168 0.90579647 9.8645737e-39
0.016664106 -0.12185707 0.90823889 1.078653e-38
-0.20070398 -0.099934906 0.90000004 8.391233e-39
-0.18748608 -0.098546013 0.90469998 7.9298976e-39
-0.1173723 -0.09920381 0.90000004 8.5727432e-39
