# .PCD v0.7 - Point Cloud Data file format
VERSION 0.7
FIELDS x y z rgb
SIZE 4 4 4 4
TYPE F F F F
COUNT 1 1 1 1
WIDTH 813
HEIGHT 1
VIEWPOINT 0 0 0 1 0 0 0
POINTS 813
DATA ascii
0.073340915 0.090075098 0.53875571 1.0201306e-38
0.10041575 0.09584152 0.537 1.1491684e-38
0.24944918 0.096466929 0.54900002 2.1244652e-39
0.27103716 0.086890563 0.54533809 5.5332134e-39
0.089194529 0.10179649 0.54511899 9.6524479e-39
0.25983992 0.10076706 0.54790902 2.1237575e-39
0.29635954 0.049202207 0.56975001 1.0232651e-38
0.076788992 0.061960973 0.55150002 1.1578835e-38
0.24875337 0.082771994 0.55471396 3.5963709e-39
0.26621494 0.072328217 0.55537921 7.0079819e-39
0.085763045 0.11469714 0.566845 8.4567886e-39
0.10448769 0.11650679 0.57228011 1.0387858e-38
0.2829819 0.10960752 0.56622481 3.3215748e-39
0.30391008 0.1192713 0.58416009 4.8867411e-39
0.24865311 0.19883932 0.59900004 6.1767401e-39
0.28153002 0.19170804 0.59466904 7.1919752e-39
0.305076 0.19075572 0.59269565 7.3781657e-39
0.039629597 0.2246464 0.59542769 8.1999992e-39
0.076972686 0.22218429 0.59379643 6.0834626e-39
0.12737016 0.21797611 0.59311187 6.3622117e-39
0.17491673 0.21658362 0.59132588 7.2838079e-39
0.22667673 0.21443081 0.58833635 6.6395175e-39
0.2751269 0.21060465 0.58425677 7.4689208e-39
0.30230719 0.20566435 0.58231783 7.2859729e-39
0.086948626 0.14812697 0.64577246 6.252015e-39
0.115417 0.14585821 0.63313395 8.6501818e-39
0.19539095 0.14771999 0.64814806 7.9284542e-39
0.2307868 0.14388023 0.64414722 7.2838093e-39
0.27468559 0.13872173 0.62944233 3.043539e-39
0.3138124 0.14305678 0.62259156 5.2558712e-39
-0.31789351 0.18614078 0.63148713 5.7193773e-39
-0.23270336 0.19992612 0.64885008 5.2591012e-39
-0.16014589 0.19670318 0.64305693 4.5197327e-39
-0.12093537 0.19351575 0.64401758 5.6242809e-39
-0.072641529 0.19051597 0.63981825 5.4406142e-39
-0.02365512 0.18696086 0.6395188 5.9930691e-39
0.025841339 0.18611673 0.63298988 5.5310119e-39
0.077555723 0.18077868 0.63414025 4.5139789e-39
0.12497818 0.17746004 0.62628859 6.1753009e-39
0.17623714 0.17751949 0.62635809 7.7440658e-39
0.22488946 0.17493074 0.61901307 6.7302754e-39
0.27213997 0.16966069 0.61346716 5.0711156e-39
0.31108138 0.16602398 0.61419314 7.1008628e-39
-0.3149626 0.21929099 0.63056755 3.5084814e-39
-0.27852964 0.24403569 0.64682865 7.3735092e-39
-0.22352521 0.22118819 0.63651317 4.5208187e-39
-0.17503497 0.22025338 0.63125056 3.9672805e-39
-0.12495546 0.21952783 0.62865162 4.6112094e-39
-0.075277328 0.21833719 0.62500858 5.9927061e-39
-0.02526396 0.21711893 0.61755866 5.4398939e-39
0.022929281 0.21484125 0.61089951 5.6232061e-39
0.074841604 0.20954937 0.60903531 5.1622266e-39
0.12096246 0.20657122 0.60269225 5.9934278e-39
0.17486027 0.20441556 0.60356289 7.4678404e-39
0.22178802 0.20366901 0.60180438 6.3629306e-39
0.1825843 0.090109631 0.69351673 9.8627702e-39
0.22715338 0.089461945 0.69346875 9.957128e-39
0.26212639 0.090346709 0.67945254 9.8652897e-39
-0.22476912 0.1470058 0.69662648 5.9941481e-39
-0.17482209 0.14211899 0.69370377 5.6246425e-39
-0.12449947 0.14274229 0.69219255 5.9934236e-39
-0.07461156 0.141064 0.69200104 6.9143037e-39
-0.021809265 0.13263956 0.68534631 7.0983362e-39
0.023978382 0.1320228 0.68063569 7.0979775e-39
0.061246179 0.14721636 0.662974 5.2515454e-39
0.14403801 0.13425928 0.66604465 8.8468148e-39
0.17503282 0.12563001 0.66888899 8.6653046e-39
0.2246577 0.12119894 0.66794944 8.5745509e-39
0.26559424 0.11619795 0.6620729 6.7317215e-39
-0.31225833 0.19953093 0.65100002 1.0502398e-38
-0.22240868 0.17731787 0.67705464 5.3498577e-39
-0.17516358 0.17517121 0.67295009 4.9803493e-39
-0.12557025 0.17008844 0.66926891 5.808675e-39
-0.076726869 0.16746598 0.6693809 5.8093953e-39
-0.025021389 0.16206844 0.66217995 6.2689357e-39
0.024397196 0.16112886 0.66138417 6.2685756e-39
0.064080916 0.15925218 0.65461576 4.3299478e-39
0.14430627 0.15226728 0.65542442 7.4678404e-39
0.16738123 0.15263559 0.65288234 7.4674789e-39
-0.31150788 0.23286942 0.66303319 3.7836278e-39
-0.29208398 0.24301147 0.66094613 5.3484381e-39
-0.20758595 0.20093669 0.6538654 4.4286146e-39
-0.19207197 0.20202485 0.65367061 4.3360603e-39
-0.30626947 0.25239557 0.66237813 2.4010577e-39
-0.29443115 0.25265142 0.6627335 3.0471417e-39
-0.010055603 0.049040094 0.74708343 8.4805546e-39
0.018310161 0.047821604 0.74588412 9.4925485e-39
0.057727013 0.028128866 0.74899995 9.5872693e-39
0.18651186 0.044450987 0.7397334 1.124607e-38
0.22525984 0.037126448 0.73922008 1.1247871e-38
0.27206171 0.038441695 0.73607099 1.124895e-38
0.32496876 0.038050044 0.74083954 1.0604682e-38
0.38033023 0.032424316 0.74435413 1.0512872e-38
-0.23546302 0.095126569 0.74417949 7.6536764e-39
-0.16688004 0.092529535 0.74293989 7.6507869e-39
-0.12359196 0.088143013 0.73646128 7.7426224e-39
-0.072954848 0.084127322 0.73787725 7.6511499e-39
-0.023108969 0.078031421 0.72997296 8.1110504e-39
0.022874473 0.074624605 0.72648549 8.7557024e-39
0.052098881 0.064341076 0.74510199 1.0496618e-38
0.18210056 0.066539004 0.71242619 1.0600698e-38
0.22225453 0.064655811 0.70734102 1.0602499e-38
0.27424034 0.066294461 0.72234035 1.0695415e-38
0.32154837 0.062176213 0.7402035 9.1284828e-39
-0.22178216 0.1253534 0.72150797 5.9945082e-39
-0.17347254 0.11904954 0.71838182 6.177096e-39
-0.12525757 0.11845487 0.71410853 6.7302698e-39
-0.074895345 0.11657581 0.71295202 7.1901717e-39
-0.030478651 0.11074458 0.70476806 7.1908906e-39
0.024795519 0.10729863 0.70678788 7.9263004e-39
-0.055047326 -0.0016146986 0.79760009 9.8627604e-39
-0.032198388 -0.0036381688 0.7951439 9.3099537e-39
0.032703687 -0.004517586 0.79323053 9.6794607e-39
0.089340009 -0.0088497233 0.79142493 1.0509946e-38
0.12277123 -0.0090977214 0.79031253 1.0971286e-38
0.15865193 -0.0057812696 0.7869724 1.1432629e-38
0.235633 -0.00074186554 0.76500005 1.161882e-38
0.25766867 -0.0004269862 0.76000005 1.1710655e-38
0.32609287 -0.0050130454 0.76900005 1.1621697e-38
-0.26113886 0.04444138 0.7930789 8.6685528e-39
-0.22920592 0.043195844 0.79492313 7.7465951e-39
-0.1607856 0.037185717 0.79301208 7.9273738e-39
-0.12569349 0.029206231 0.78144073 8.5713083e-39
-0.072278596 0.02707037 0.77592838 9.2159602e-39
-0.024316836 0.025707344 0.77700126 8.9408125e-39
0.024994159 0.023611143 0.76830125 9.4943492e-39
0.071581066 0.020624163 0.76698595 1.0231197e-38
0.12672006 0.014086867 0.78737617 1.0877648e-38
0.1729438 0.021501137 0.77638537 1.1247152e-38
0.22379641 0.016307108 0.75486469 1.1433703e-38
0.26576313 0.012027032 0.75552261 1.1526977e-38
0.34252205 0.026261944 0.75311565 1.1157847e-38
0.36815721 0.036463346 0.75896037 1.0235206e-38
-0.26616648 0.063068435 0.78332299 1.0231546e-38
-0.21984741 0.075499095 0.76873189 6.639879e-39
-0.17759421 0.070804179 0.77041525 6.8228241e-39
-0.1266381 0.064015955 0.76495838 8.1110462e-39
-0.079437107 0.061255347 0.7539686 8.2954417e-39
-0.03765801 0.054716974 0.75388741 8.7549807e-39
0.047505368 0.052201644 0.75009096 1.0872605e-38
0.05623696 0.053756975 0.7524516 1.087152e-38
-0.21412699 0.10565426 0.75317264 5.6260774e-39
-0.15145743 -0.050992012 0.84800005 7.6522317e-39
-0.12036653 -0.051900502 0.84600019 8.5713055e-39
-0.091893084 -0.052573327 0.84486365 1.0135756e-38
-0.015378385 -0.056891885 0.84900033 9.0340927e-39
0.032200295 -0.057184681 0.84044391 9.7730983e-39
0.068625987 -0.065819874 0.8443836 1.0879089e-38
0.10257266 -0.053526849 0.83033341 1.1617022e-38
-0.25862315 -0.013633471 0.84004593 1.1250033e-38
-0.21430731 -0.021781305 0.84088892 9.034813e-39
-0.17445409 -0.022951314 0.83119661 8.112128e-39
-0.12551072 -0.024249939 0.82448459 8.2036048e-39
-0.07552813 -0.020628352 0.82211608 8.9400922e-39
-0.021342129 -0.023422958 0.82268173 9.1255639e-39
0.023692001 -0.026828265 0.81603181 1.0047885e-38
0.069730617 -0.021886302 0.81697232 1.060178e-38
0.12621024 -0.028344667 0.81964213 1.1524462e-38
0.15110932 -0.029960496 0.82533336 1.161882e-38
-0.26118895 0.014825589 0.82184631 9.4997582e-39
-0.2169129 0.024423206 0.82454789 7.4692809e-39
-0.18078409 0.022278579 0.81707746 7.7437028e-39
-0.13181184 0.0055316687 0.80680984 8.6635039e-39
-0.084275529 0.0024187253 0.80360013 1.0228673e-38
-0.0029733772 0.00085197017 0.8016001 9.9538868e-39
0.0015818777 0.0008513325 0.80100006 9.7698543e-39
0.069086209 0.0017999538 0.80263644 1.0049329e-38
-0.21130046 0.05259563 0.80332375 6.6398734e-39
-0.19202709 0.05162276 0.80261308 6.5465974e-39
-0.21045265 -0.10116308 0.89792317 9.3117628e-39
-0.11819493 -0.10436039 0.89487475 8.2975969e-39
-0.078831896 -0.10792346 0.89283073 9.0340871e-39
-0.017977023 -0.10738949 0.89352834 9.7730969e-39
0.012934856 -0.11041527 0.88740605 1.0234075e-38
0.060902219 -0.11205119 0.86786437 1.1433344e-38
-0.21173383 -0.073848695 0.88436639 8.9436978e-39
-0.17462465 -0.072462305 0.8737815 7.8373404e-39
-0.12787548 -0.073467068 0.87268406 8.4805504e-39
-0.070686549 -0.073325232 0.86675012 9.4010718e-39
-0.024810787 -0.073283657 0.86373389 9.4950695e-39
0.018134305 -0.078348309 0.86102629 1.0233358e-38
0.064333424 -0.072773613 0.85066658 1.0970923e-38
-0.26121005 -0.023870049 0.85050005 1.1434427e-38
-0.2118023 -0.047705058 0.85436761 8.7593065e-39
-0.18044803 -0.047757708 0.8530975 7.7451434e-39
-0.12396862 -0.048120737 0.85000008 7.5603948e-39
-0.061721906 -0.042792391 0.85615247 8.6645829e-39
-0.036341917 -0.045796189 0.85457003 8.3890778e-39
0.078720041 -0.048078552 0.85036367 1.0878007e-38
-0.20979013 -0.12396377 0.92483348 9.2202833e-39
-0.19206825 -0.11729775 0.92908794 8.2057656e-39
-0.11392941 -0.11577719 0.90419459 8.3901568e-39
-0.071672127 -0.12163009 0.90442681 9.3113957e-39
-0.033618655 -0.11355168 0.90579647 9.8645737e-39
0.016664106 -0.12185707 0.90823889 1.078653e-38
-0.20070398 -0.099934906 0.90000004 8.391233e-39
-0.18748608 -0.098546013 0.90469998 7.9298976e-39
-0.1173723 -0.09920381 0.90000004 8.5727432e-39
-0.60453355 -0.1743502 1.1970999 9.312811e-39
-0.58858651 -0.16383359 1.1979992 9.2166525e-39
-0.58000374 -0.14458446 1.1970364 7.6489666e-39
-0.50504935 -0.4559136 1.239778 1.041737e-38
-0.49889693 -0.45672715 1.2420001 1.1429722e-38
-0.50388575 -0.44904661 1.2320001 1.0418452e-38
-0.61644608 -0.20202874 1.2270001 1.0686728e-38
-0.58376348 -0.20679405 1.2251999 1.1052251e-38
-0.61113542 -0.16990688 1.2076592 8.7549625e-39
-0.5727756 -0.17392281 1.2041161 1.0131388e-38
-0.53908682 -0.15745835 1.212073 1.0776036e-38
-0.61526781 -0.13205262 1.2350138 6.8174109e-39
-0.57305086 -0.13278833 1.2235061 7.4616915e-39
-0.54122496 -0.14435068 1.2236316 1.0682762e-38
-0.48445976 -0.084131591 1.2443848 1.123957e-38
-0.50283074 -0.47843415 1.2620001 1.0971609e-38
-0.1449178 -0.32523525 1.2970001 9.8591703e-39
-0.44867408 -0.25051427 1.2920001 9.5792917e-39
-0.6089955 -0.22414574 1.2806801 1.1051897e-38
-0.59317553 -0.22204992 1.2806286 1.1050455e-38
-0.44303411 -0.24762511 1.287077 9.6704154e-39
-0.64847159 -0.15605927 1.2582 5.7081935e-39
-0.56287014 -0.1852259 1.2741295 1.0406531e-38
-0.54998052 -0.17396125 1.2620001 1.0133554e-38
-0.46192521 -0.15343685 1.2939287 9.9517218e-39
-0.41805845 -0.16256285 1.2859564 9.2181239e-39
-0.38314626 -0.17619233 1.2737881 9.5865532e-39
-0.65043014 -0.13910577 1.2620001 3.868241e-39
-0.62954962 -0.12381939 1.2601802 6.6315763e-39
-0.56919664 -0.11878116 1.2750211 9.5785813e-39
-0.53401011 -0.12497489 1.2802256 1.0227572e-38
-0.47217217 -0.12969939 1.2713041 7.9284668e-39
-0.43869317 -0.14031324 1.2926154 8.8500644e-39
-0.54080445 -0.096732557 1.294 1.1054802e-38
-0.48240331 -0.064685039 1.2719773 1.0780031e-38
-0.4609814 -0.031175818 1.2857336 1.0323024e-38
-0.43892452 -0.025637314 1.2776212 1.0695412e-38
-0.15190063 -0.3278189 1.3016667 1.0688928e-38
-0.14558819 -0.33203211 1.3030001 1.0413056e-38
-0.61752284 -0.25704083 1.3267419 1.0038109e-38
-0.59200948 -0.25777978 1.3309641 1.0774234e-38
-0.51549518 -0.25734958 1.3471667 9.4860171e-39
-0.67036057 -0.21798949 1.311 8.8507594e-39
-0.61277807 -0.24166988 1.3158967 1.0958981e-38
-0.58300585 -0.23039223 1.3239964 1.0498367e-38
-0.5317629 -0.2369598 1.3464288 1.003811e-38
-0.46398777 -0.24723092 1.317 9.9444827e-39
0.32734475 -0.23692994 1.3460001 1.0693627e-38
-0.56429237 -0.19207977 1.3090928 1.0314337e-38
-0.45717123 -0.17192562 1.3163704 9.6751349e-39
-0.44297883 -0.16353367 1.3038863 8.665313e-39
-0.65926534 -0.12505068 1.3080001 8.1952923e-39
-0.61116761 -0.105512 1.3326249 6.8199389e-39
-0.57412267 -0.10733906 1.3147416 1.0407623e-38
-0.54643732 -0.10849266 1.3021176 1.0778212e-38
-0.43898737 -0.1429691 1.3011051 9.1262912e-39
-0.60587549 -0.099098787 1.345143 7.9241284e-39
-0.57848674 -0.092179283 1.3414485 9.8573556e-39
-0.54794109 -0.096215077 1.3060001 1.1515052e-38
-0.47608066 -0.020315886 1.3236454 9.0330025e-39
-0.40173265 -0.31014764 1.3950001 8.0119814e-39
-0.39350724 -0.3094427 1.3830001 8.380408e-39
-0.6622386 -0.26751488 1.3831217 6.7248495e-39
-0.64474177 -0.26290968 1.3593847 7.5524438e-39
-0.57272196 -0.26590693 1.3734914 1.0682035e-38
-0.53600359 -0.26604268 1.3621205 9.9462708e-39
-0.49585927 -0.2500737 1.358 1.0128878e-38
-0.64728951 -0.24730939 1.3610001 1.1329193e-38
-0.56548035 -0.24280715 1.3568853 1.0313611e-38
-0.53536958 -0.23758425 1.3568747 9.9462764e-39
-0.49585924 -0.24676427 1.358 1.0128521e-38
-0.31355959 -0.23103303 1.376 9.0351745e-39
0.33689299 -0.24062647 1.3670001 1.1709579e-38
-0.65099674 -0.10050544 1.3950001 7.2783863e-39
-0.63469112 -0.10324635 1.3655 7.0028854e-39
-0.65099674 -0.098239042 1.3950001 7.0947167e-39
-0.61457807 -0.087602101 1.3810003 6.911773e-39
-0.58574545 -0.070052832 1.3736435 7.370956e-39
-0.57229394 -0.044822875 1.3849024 8.3851122e-39
-0.50444818 -0.013175251 1.3773125 1.0045714e-38
-0.4913722 -0.0091349995 1.3632501 9.6780104e-39
-0.55825126 0.035393134 1.3907832 7.5567794e-39
-0.52785814 0.035642259 1.3721672 7.0972474e-39
-0.48624271 0.028374044 1.3579447 1.0231188e-38
-0.55480576 0.055149667 1.3928573 8.8471483e-39
-0.52164364 0.058317915 1.3777001 6.4522395e-39
-0.4979386 0.057220239 1.3686154 8.2961577e-39
-0.60496444 -0.30300692 1.437143 1.0406894e-38
-0.5827055 -0.30706346 1.4353491 1.0590193e-38
-0.68850464 -0.27116141 1.4244782 7.2780205e-39
-0.60473812 -0.29638526 1.4314001 1.049801e-38
-0.57703918 -0.29307786 1.4140478 1.0498e-38
-0.72768629 -0.24576053 1.4291431 8.6634787e-39
-0.59573662 -0.18679516 1.4310001 1.1512531e-38
-0.67925572 -0.11097576 1.4253125 7.9215949e-39
-0.65619361 -0.07730253 1.439353 7.3709504e-39
-0.62901878 -0.069158927 1.4168029 6.6355504e-39
-0.59846687 -0.052037612 1.4020001 5.9916285e-39
-0.61997199 -0.024724886 1.4367152 7.1869179e-39
-0.58633232 -0.02345483 1.4282321 6.9114212e-39
-0.53022343 -0.0093549928 1.4117565 1.0781121e-38
-0.6068725 0.018615544 1.4431727 8.7531562e-39
-0.5794434 0.020564834 1.4256978 7.7404546e-39
-0.52964872 0.0082140611 1.4070626 9.9524421e-39
-0.6064055 0.052827332 1.4432499 9.3074146e-39
-0.57511008 0.06198965 1.4287102 9.1226632e-39
-0.53930628 0.069877297 1.4088128 6.1749282e-39
-0.6199432 0.11889528 1.4340564 1.1152049e-38
-0.59079534 0.12191491 1.4252274 1.1150967e-38
0.6161626 -0.47907197 1.498 7.467853e-39
0.68533099 -0.41454878 1.4959092 9.405413e-39
-0.30636659 -0.3899495 1.4748001 8.5651622e-39
0.4393236 -0.36790904 1.4969758 1.0508151e-38
0.45100644 -0.36517018 1.4950001 1.1431901e-38
-0.61388457 -0.31835368 1.4702001 1.0684556e-38
-0.5977667 -0.32119387 1.4652222 1.0591277e-38
-0.4605948 -0.31479436 1.498 1.095791e-38
-0.44190851 -0.31467175 1.4662499 9.022895e-39
-0.76210493 -0.27119774 1.4869608 6.082734e-39
-0.71725386 -0.27634993 1.4733335 5.8036205e-39
0.41026482 -0.28535625 1.4770001 9.402176e-39
-0.60626733 -0.18846649 1.462 1.1513605e-38
-0.71046287 -0.1059797 1.4811902 7.5538885e-39
-0.68874598 -0.10453278 1.455 8.1981776e-39
-0.7501635 -0.054383945 1.498 4.2388172e-39
-0.72480947 -0.071189292 1.494752 6.0787669e-39
-0.67946512 -0.068846688 1.4762661 6.9081688e-39
-0.64929307 -0.051534437 1.452 7.8329964e-39
-0.75804317 -0.010950772 1.4940811 8.0123416e-39
-0.72368509 -0.01582562 1.4817691 7.9208718e-39
-0.67492366 -0.021089243 1.4745059 7.5535326e-39
-0.64286596 -0.012956503 1.4547383 7.9219592e-39
-0.58384526 -0.0072352597 1.4531792 7.0961698e-39
-0.75943345 0.028947067 1.495491 8.3832919e-39
-0.73122686 0.026394727 1.4860157 8.5676831e-39
-0.66806763 0.027748158 1.4925494 8.7527975e-39
-0.63121569 0.025294889 1.4679861 8.9368286e-39
-0.76065117 0.052669056 1.4971 9.1226646e-39
-0.72485328 0.053950377 1.4965219 9.6736706e-39
-0.67260545 0.074102029 1.4916449 1.0320842e-38
-0.62253553 0.067293674 1.4790719 9.7683899e-39
-0.58561116 0.078028262 1.4691201 9.4910842e-39
-0.66586179 0.11975153 1.4743036 1.124424e-38
-0.64410293 0.11102858 1.4579002 1.0968016e-38
0.59725726 -0.48956639 1.5425718 9.6794705e-39
0.61150306 -0.47806048 1.5179994 8.8511448e-39
0.43333134 -0.40872097 1.5330254 8.7582387e-39
0.46449357 -0.40864223 1.5384367 8.479847e-39
0.53381628 -0.41456524 1.5359025 8.3890919e-39
0.55699098 -0.41033477 1.541943 7.836274e-39
0.68801576 -0.41965014 1.514289 8.668564e-39
0.71359301 -0.42687091 1.5282726 9.682716e-39
-0.70204216 -0.36783031 1.5365001 2.9488084e-39
-0.67915833 -0.36157474 1.5419048 3.68457e-39
-0.64349562 -0.3556405 1.544 7.0900279e-39
0.3447707 -0.35442588 1.5332855 1.0230848e-38
0.37584504 -0.35750267 1.5401444 7.2813094e-39
0.43152091 -0.37094396 1.5229214 8.388373e-39
0.46836191 -0.37481764 1.5220345 9.3114097e-39
0.52899653 -0.38196561 1.5311491 8.1114218e-39
0.55569088 -0.39152381 1.5363501 9.9556945e-39
-0.6563552 -0.3429915 1.526 3.4087048e-39
-0.63371277 -0.34190068 1.5173438 8.8417323e-39
0.34457287 -0.34298903 1.5213573 9.8635059e-39
0.37239346 -0.34321076 1.5359155 9.0337424e-39
0.42513621 -0.33258575 1.5466667 8.0206737e-39
-0.76295137 -0.28513607 1.5173949 4.1477075e-39
-0.74235779 -0.282222 1.5102259 5.2500964e-39
0.34281096 -0.29216927 1.5170001 8.4798512e-39
0.39889932 -0.29672086 1.5400002 8.5716909e-39
0.40675226 -0.29376683 1.5214444 9.3085356e-39
-0.76546729 -0.10604619 1.5328799 7.7368379e-39
-0.73517931 -0.10829957 1.5081751 7.3702162e-39
-0.76800442 -0.074683234 1.5262437 3.7778446e-39
-0.72335774 -0.07420136 1.5061265 6.6312134e-39
-0.69742852 -0.057919987 1.503 6.7230419e-39
-0.76853096 -0.022614209 1.5139873 7.7368281e-39
-0.72714257 -0.036366366 1.5112044 7.6431975e-39
-0.69510442 -0.044197012 1.5032502 7.6442877e-39
-0.77078027 0.02318031 1.5040362 8.3822017e-39
-0.71638805 0.027802384 1.5148346 8.7520744e-39
-0.68376476 0.025718603 1.5094414 8.5684048e-39
-0.76448238 0.077446349 1.5098242 1.0135733e-38
-0.74172485 0.07459601 1.5022382 1.0227928e-38
-0.6639722 0.080815069 1.5283515 1.0412323e-38
-0.63025796 0.086655565 1.5257956 1.0412682e-38
-0.5024758 -0.61723441 1.5840001 8.7553002e-39
-0.48317391 -0.61665624 1.5883782 7.1869221e-39
0.54389369 -0.50980455 1.5905666 7.0976342e-39
0.57053351 -0.51083022 1.5743871 8.6656773e-39
0.60181856 -0.50390601 1.552 6.4540752e-39
0.53906381 -0.48786539 1.5746791 7.0050742e-39
0.57582575 -0.48699543 1.5572501 1.0047894e-38
0.61668497 -0.4781884 1.5629092 8.9429817e-39
0.72741532 -0.45862836 1.5896473 7.9313577e-39
0.7561574 -0.45380989 1.5930001 8.7614827e-39
-0.71326852 -0.4022373 1.5835555 4.328852e-39
-0.69626474 -0.40133414 1.58 4.6047214e-39
0.3857933 -0.40046313 1.5970001 5.8065436e-39
0.42031398 -0.41977805 1.5809197 7.466058e-39
0.48111308 -0.4262521 1.5721149 7.5586137e-39
0.51302814 -0.4192591 1.564 7.9291927e-39
0.57283127 -0.41344193 1.5599999 8.1132238e-39
0.6234172 -0.42365104 1.5963848 1.0324851e-38
0.69695234 -0.42357653 1.5664002 7.7469679e-39
0.72265399 -0.43467915 1.5750412 9.2224553e-39
0.75529969 -0.43415275 1.5861429 1.0788352e-38
-0.70897925 -0.38945809 1.5657673 4.0533469e-39
-0.68289733 -0.37742662 1.5597368 4.1448293e-39
0.34285372 -0.36611629 1.5738696 8.3858479e-39
0.37973291 -0.3806749 1.572103 7.3731393e-39
0.41194999 -0.37741205 1.5638896 7.0050784e-39
0.48279893 -0.3718071 1.5713887 8.6656787e-39
0.5212214 -0.3816191 1.5581112 8.5727615e-39
0.56904465 -0.39926484 1.552 9.5901532e-39
0.37958327 -0.3350274 1.5722989 7.0965566e-39
0.4172473 -0.31432948 1.571 7.6500905e-39
0.37094226 -0.29994407 1.5600001 8.3869367e-39
-0.80902952 -0.10481308 1.5883636 3.6860189e-39
-0.78805274 -0.1074947 1.5626668 6.4479067e-39
-0.81017053 -0.077812679 1.5796363 2.6725775e-39
-0.7925179 -0.0822898 1.5590347 2.948807e-39
-0.80195665 -0.028681897 1.5560001 7.2765744e-39
-0.81443298 0.13210012 1.5864499 1.1610865e-38
-0.78237998 0.13419726 1.5626417 1.1520824e-38
-0.8074078 0.15848194 1.574 1.1521915e-38
-0.78131187 0.15787289 1.5582354 1.1430073e-38
0.74965495 -0.60989857 1.6440001 7.4739809e-39
0.75748539 -0.61082608 1.6465002 7.7494874e-39
0.44657055 -0.50191182 1.649 7.7419274e-39
0.47525707 -0.50171179 1.6396668 8.5724013e-39
0.52650976 -0.51209068 1.6244043 7.1894697e-39
0.55202579 -0.53647465 1.6400001 8.9408209e-39
0.43206298 -0.462511 1.6384315 7.3738637e-39
0.47257185 -0.47048718 1.626127 7.0054427e-39
0.51265788 -0.47932622 1.6132264 7.927755e-39
0.61958015 -0.48857632 1.618143 9.7716578e-39
0.66086131 -0.45100957 1.649 1.1431548e-38
0.73215848 -0.46290416 1.6281252 8.4856063e-39
0.76851225 -0.46849191 1.6289723 8.117551e-39
0.85647535 -0.49638352 1.6440001 1.1621359e-38
0.3786858 -0.42091891 1.6147286 7.926313e-39
0.41532162 -0.43818781 1.6143196 6.6348596e-39
0.48718515 -0.44726512 1.6019999 9.1244989e-39
0.5073458 -0.44312924 1.6034998 8.4823679e-39
0.63622534 -0.43307209 1.6106155 1.0234455e-38
0.6643393 -0.43868437 1.6360936 8.3923429e-39
0.71409708 -0.43704551 1.6288095 9.0362605e-39
0.78772473 -0.41487411 1.6341224 1.0605034e-38
0.81452143 -0.42019096 1.6224802 1.1251128e-38
0.34303379 -0.37587762 1.6185294 6.634491e-39
0.36124045 -0.38908002 1.6202898 7.9259501e-39
0.40103376 -0.3518841 1.649 6.6348512e-39
0.49049735 -0.37422541 1.6201667 9.5861945e-39
0.55885512 -0.3775337 1.6238461 8.9429733e-39
0.74693978 -0.37911659 1.6423333 1.0696149e-38
0.76529706 -0.37440103 1.6425095 1.0695786e-38
0.83347309 -0.39244032 1.6325152 1.1436597e-38
0.85396427 -0.38567585 1.6417501 1.1528788e-38
0.38462627 -0.32662448 1.6179092 7.1894683e-39
0.41260278 -0.32643738 1.6247815 7.0050798e-39
-0.83045322 -0.1251663 1.6245077 5.9872929e-39
-0.82521206 -0.093497306 1.6053333 2.5796658e-39
0.77588642 -0.6588484 1.6904856 9.9607476e-39
0.77599716 -0.62685806 1.6671727 9.7763535e-39
0.80414492 -0.62318856 1.6896669 1.0238771e-38
0.56084585 -0.55577469 1.6990001 7.6504478e-39
0.78661078 -0.55567467 1.6820416 8.3012206e-39
0.80414879 -0.57512677 1.6941252 9.0405863e-39
0.4366565 -0.51267642 1.6756206 7.096195e-39
0.46992779 -0.51749122 1.6733998 7.8355565e-39
0.52355617 -0.52574742 1.6683333 9.8645779e-39
0.55459398 -0.54362339 1.670143 9.4014459e-39
0.68753815 -0.50332898 1.6715 1.0046806e-38
0.77743715 -0.52898961 1.6866806 9.2213735e-39
0.80371302 -0.50470912 1.6990001 7.9324395e-39
0.85796261 -0.5039587 1.6837 1.1067087e-38
0.43112686 -0.4831256 1.6782484 7.8344789e-39
0.47148678 -0.48885471 1.6784291 6.6373791e-39
0.52024496 -0.47269726 1.6593001 1.0234081e-38
0.6819979 -0.46240613 1.6737825 1.0419555e-38
0.72101337 -0.46122289 1.6819141 8.4834553e-39
0.78626847 -0.48824397 1.6731143 8.2093865e-39
0.81227064 -0.4733434 1.67856 1.005222e-38
0.85356444 -0.49926561 1.6670001 1.1434434e-38
0.36046827 -0.41256714 1.6807371 7.0039938e-39
0.68714994 -0.44517684 1.6579286 7.8402481e-39
0.72225857 -0.43465981 1.6612002 1.0418842e-38
0.77389741 -0.40331587 1.653 1.0973092e-38
0.34830394 -0.39302117 1.6530001 6.4504599e-39
0.38224027 -0.36198443 1.6847306 6.5437345e-39
0.41227868 -0.35316768 1.6678096 6.2685896e-39
0.51739818 -0.38762122 1.6794285 1.0048256e-38
0.56591058 -0.38965401 1.6820798 9.2184896e-39
0.74250501 -0.3924849 1.6557934 1.0879817e-38
0.7890178 -0.38322797 1.6581186 1.078834e-38
0.82307833 -0.38080779 1.6738083 1.0790145e-38
0.3885664 -0.33528832 1.676917 7.4653293e-39
0.41340089 -0.33267221 1.6635791 7.3727819e-39
0.77924621 -0.33325857 1.6766001 1.1063851e-38
-0.85291952 -0.13558231 1.6575001 6.7252125e-39
-0.84266394 -0.13669987 1.6548001 6.9103184e-39
0.79488391 -0.66539603 1.7075716 9.4111639e-39
0.82128829 -0.66765046 1.7308335 1.0146221e-38
0.82947928 -0.63337225 1.7254201 1.0422802e-38
0.90213794 -0.63854134 1.748 1.1532413e-38
0.44576377 -0.55822438 1.7455001 1.0692552e-38
0.47558171 -0.55561262 1.7373337 9.3096076e-39
0.51764953 -0.55831319 1.7456001 8.66532e-39
0.56013411 -0.56368399 1.7357082 8.5720426e-39
0.82609767 -0.56863332 1.7233233 9.5919609e-39
0.85900527 -0.58551693 1.7444286 9.5926797e-39
0.42575809 -0.51940233 1.712054 8.8482693e-39
0.47454706 -0.54112476 1.7104101 8.6635193e-39
0.51621103 -0.54286242 1.7134285 8.7567898e-39
0.5555765 -0.54772073 1.7040001 1.0048619e-38
0.72217995 -0.5088551 1.7443637 8.021031e-39
0.77735454 -0.52193457 1.7111541 8.1157476e-39
0.82610899 -0.52208459 1.7254519 8.4856161e-39
0.85734415 -0.51361203 1.7256299 1.0328808e-38
0.42718393 -0.49734503 1.7097502 7.9252326e-39
0.69308478 -0.4844076 1.7229414 9.2195742e-39
0.72801703 -0.48712605 1.7228402 9.4954436e-39
0.75017029 -0.49794081 1.738 8.6656886e-39
0.83094823 -0.49552843 1.7113751 9.3150208e-39
0.85005176 -0.49924186 1.723 1.0238785e-38
0.36115789 -0.42196473 1.7240978 6.4497396e-39
0.54375279 -0.4024311 1.728 8.7593163e-39
0.5607574 -0.40328586 1.7424117 9.8635017e-39
0.38685411 -0.3646476 1.7262309 6.7274027e-39
0.41800058 -0.35571483 1.7228435 6.5448177e-39
0.53001148 -0.3939746 1.7209377 9.033741e-39
0.5703944 -0.39549038 1.7203846 9.4929171e-39
0.82914388 -0.35074443 1.739 1.0327729e-38
0.39178368 -0.34904662 1.7140001 7.1894557e-39
0.41450205 -0.34558165 1.713773 7.4649734e-39
0.82401943 -0.34728476 1.7330002 1.0786911e-38
0.84353262 -0.67788547 1.758 1.0700838e-38
0.86272883 -0.65905213 1.7728518 1.070012e-38
0.90671414 -0.66629064 1.7816666 1.1346573e-38
0.44526291 -0.60477823 1.791 1.0233007e-38
0.45730081 -0.60343885 1.7935001 9.5847652e-39
0.88084298 -0.6229744 1.7784547 1.0330972e-38
0.9159748 -0.62267631 1.7873759 1.1069626e-38
0.4395428 -0.58753926 1.7881193 8.1110602e-39
0.46736309 -0.58184308 1.783254 9.2177721e-39
0.52395624 -0.57540172 1.7784806 7.5589711e-39
0.56776613 -0.58462965 1.7783885 7.9259459e-39
0.88256997 -0.5933001 1.7618848 9.7785185e-39
0.90664768 -0.59663832 1.7780001 1.1251133e-38
0.69851172 -0.50246167 1.779 7.5604144e-39
0.72877699 -0.5152024 1.7702833 6.8235696e-39
0.75176686 -0.51429033 1.7650002 6.73246e-39
0.36827129 -0.45605192 1.7770002 7.7415602e-39
0.69740546 -0.49653044 1.7580001 7.0997992e-39
0.36299187 -0.43211842 1.7676129 6.0813172e-39
0.54760671 -0.40198934 1.7630001 8.111426e-39
0.58599406 -0.40581998 1.7798001 8.7557164e-39
0.39575148 -0.36052099 1.7563334 6.8206829e-39
0.40708885 -0.36045259 1.7560002 6.7288418e-39
0.53328764 -0.39769292 1.7630001 7.8341188e-39
0.64541429 -0.35315731 1.784 9.3106992e-39
0.84590161 -0.35372275 1.7580001 1.0604318e-38
0.86449051 -0.35726398 1.7756001 1.0973455e-38
0.64541429 -0.34880972 1.784 1.0970572e-38
0.93417674 -0.71257514 1.8273335 1.1624603e-38
0.89294648 -0.66345257 1.8065652 1.0701202e-38
0.90655899 -0.66516984 1.8099616 1.0885953e-38
0.23642389 -0.60334045 1.8490001 5.3419459e-39
0.43258721 -0.60994184 1.8395004 9.1255751e-39
0.48510647 -0.61283493 1.822834 8.0185171e-39
0.52547997 -0.61204422 1.8390318 5.5303127e-39
0.57207835 -0.60885596 1.8308001 5.806894e-39
0.89496261 -0.6337747 1.8031052 1.0515366e-38
0.91453284 -0.63416326 1.8020998 1.0886315e-38
0.42942309 -0.58996922 1.8080002 8.1099826e-39
0.4856858 -0.59483427 1.8057243 9.6791062e-39
0.52238584 -0.59487212 1.8110433 6.544459e-39
0.56423712 -0.59638423 1.8180436 6.7281286e-39
0.72449499 -0.55227256 1.8490001 9.2181309e-39
0.14814916 -0.51025689 1.84375 4.0540896e-39
0.15826865 -0.50671804 1.8387589 3.7778572e-39
0.72244692 -0.52974337 1.8350003 8.1132252e-39
0.16867213 -0.48935658 1.8337225 3.5931072e-39
0.3688131 -0.45921737 1.8331001 5.3437536e-39
0.36415228 -0.43836123 1.821731 5.3437494e-39
0.57687789 -0.41432071 1.824375 8.4794868e-39
0.61320037 -0.41295704 1.8306667 8.8482693e-39
0.65557033 -0.36263496 1.8097144 9.9553442e-39
0.92472482 -0.3725245 1.8440002 1.1159288e-38
0.23539646 -0.61985904 1.8743665 5.250109e-39
0.43722644 -0.62307894 1.886 9.0340997e-39
0.4992747 -0.63465643 1.8660001 7.284559e-39
0.52233559 -0.63174587 1.8753338 5.9912922e-39
0.56809461 -0.62415826 1.8677189 5.898012e-39
0.60355282 -0.63618726 1.8840001 7.0021987e-39
0.89635265 -0.64375126 1.8660001 8.1204405e-39
0.71780616 -0.55406463 1.8550001 8.575281e-39
0.13720664 -0.51772845 1.8759469 5.2526342e-39
0.73996115 -0.54003108 1.8657501 6.1771212e-39
0.75198072 -0.54742229 1.8840001 6.3600789e-39
0.13046402 -0.47122329 1.8850267 6.8195955e-39
0.1605349 -0.47426561 1.8664461 3.8700557e-39
0.36604488 -0.46906126 1.8785716 5.5267001e-39
0.14584509 -0.44790879 1.8659999 5.1586393e-39
0.15502505 -0.44842848 1.8660001 4.7902141e-39
0.36167586 -0.44202805 1.8681173 5.3423061e-39
0.57467628 -0.41844606 1.8550001 7.7437267e-39
0.61396313 -0.42096052 1.8783998 9.1237674e-39
0.68946612 -0.37141895 1.87625 9.3106992e-39
0.72597128 -0.37193036 1.8788333 1.0139019e-38
0.93391854 -0.38228548 1.8623335 1.0697951e-38
0.23142859 -0.65500623 1.93275 5.1575491e-39
0.53734571 -0.65903145 1.9376668 7.0979971e-39
0.59010822 -0.65159583 1.9250001 6.2696672e-39
0.60417962 -0.65159583 1.9250001 6.2689483e-39
0.22925237 -0.63585347 1.9138827 4.6980086e-39
0.44130042 -0.63657552 1.9347646 8.7589506e-39
0.53786629 -0.64472836 1.9069997 5.7154298e-39
0.57210606 -0.64520591 1.9112223 6.2671532e-39
0.60417962 -0.64846832 1.9250001 6.083478e-39
0.76068383 -0.56063634 1.9253752 6.6359414e-39
0.098085761 -0.53342956 1.9190001 1.1614849e-38
0.11941091 -0.52043748 1.9130001 1.032375e-38
0.75348169 -0.54823875 1.9190001 6.6377336e-39
0.12389615 -0.49256933 1.9044552 8.57203e-39
0.34863713 -0.46795106 1.9138573 4.9753172e-39
0.35803562 -0.475481 1.9097049 5.434859e-39
0.59603089 -0.42906347 1.909 7.6508108e-39
0.62180078 -0.42528051 1.9214765 8.1125022e-39
0.69546247 -0.3824954 1.9010001 9.6787545e-39
0.72043985 -0.38355148 1.9196297 9.5876393e-39
0.7561205 -0.38835984 1.9322727 9.5887183e-39
0.97472537 -0.39701957 1.925 1.143372e-38
0.22957678 -0.66644257 1.9605836 4.9731592e-39
0.44051692 -0.65267116 1.9813334 8.8500756e-39
0.53739607 -0.67724133 1.9714003 1.014153e-38
0.57384115 -0.67055953 1.9680002 7.3745854e-39
0.60619152 -0.67938036 1.988 8.571681e-39
0.22558153 -0.64738578 1.95 4.3299464e-39
0.43762267 -0.64115089 1.977579 8.5727629e-39
0.030944088 -0.57387847 1.9848459 1.1336091e-38
0.77017707 -0.5691238 1.9696666 5.901249e-39
0.62486684 -0.42997494 1.9647858 7.5586109e-39
0.65872061 -0.42882586 1.990625 7.5589739e-39
0.74178374 -0.40219781 1.9750001 9.2192155e-39
0.7818861 -0.40219781 1.975 9.4043228e-39
1.0002033 -0.41057283 1.9690001 1.1434081e-38
0.73774862 -0.39474618 1.9579167 9.4950821e-39
0.76427853 -0.39748019 1.9616252 9.7720291e-39
0.54614586 -0.70866698 2.0350001 1.1156756e-38
0.55533105 -0.70484537 2.0303335 1.087981e-38
0.2259728 -0.6935432 2.02825 5.0649891e-39
0.43313196 -0.66167897 2.0177774 8.7568052e-39
0.54705423 -0.69437099 2.0080001 1.134115e-38
0.57962286 -0.69005483 2.0159373 8.9433446e-39
0.60191834 -0.68741131 2.0115001 8.6638753e-39
0.044893939 -0.60185462 2.0150001 1.0599246e-38
0.058390826 -0.60579717 2.0282001 1.069252e-38
0.43138233 -0.64643717 2.0010002 8.5720468e-39
0.035040092 -0.59233034 2.0138259 1.1058783e-38
0.054058798 -0.59563458 2.0150001 1.1060583e-38
0.78596431 -0.58689141 2.0282309 5.9005385e-39
0.63149041 -0.43493718 2.0185556 7.2831016e-39
0.67438865 -0.43536401 2.0480001 7.5593284e-39
0.79380476 -0.41866267 2.0333846 9.4046843e-39
0.8237772 -0.42851084 2.0430002 8.3923331e-39
0.57897049 -0.71976012 2.0756364 1.0512104e-38
0.60023606 -0.7247712 2.0910001 1.1245709e-38
0.42489022 -0.68647522 2.0769999 1.0970574e-38
0.80502087 -0.60789865 2.0979998 5.9008987e-39
0.7979064 -0.5974676 2.062 5.8083415e-39
0.81395018 -0.45564273 2.0937998 8.0206709e-39
0.64143914 -0.4375197 2.0597336 7.0994292e-39
0.66258287 -0.43763933 2.0675263 7.5593298e-39
0.7675007 -0.42505416 2.0638421 9.1270198e-39
0.81528658 -0.43781564 2.08796 8.3912513e-39
0.58356082 -0.75288862 2.1420002 1.1432264e-38
0.4196094 -0.70226455 2.105 1.170814e-38
0.5799309 -0.74334496 2.125778 1.0879451e-38
0.79541606 -0.46241605 2.1292002 7.9291899e-39
0.80856258 -0.45533779 2.1204164 7.7458804e-39
0.78372627 -0.44382167 2.1222498 7.9299144e-39
0.80776691 -0.44284275 2.1088178 8.3905324e-39
0.2897113 -0.80576271 2.1960001 5.3419417e-39
0.29102191 -0.78835511 2.1764669 5.2508237e-39
0.30013224 -0.78608531 2.181 5.9869468e-39
0.59510213 -0.75921416 2.1650002 1.0604661e-38
0.61936349 -0.76029497 2.1781666 1.0509591e-38
0.66362244 -0.76194757 2.1880002 1.0878375e-38
0.60844129 -0.74871451 2.1500001 1.0324481e-38
0.79447961 -0.45996007 2.1636667 7.6536848e-39
0.80482858 -0.46144336 2.1642222 7.8377159e-39
0.2890633 -0.81330377 2.2080002 5.6185258e-39
0.31229198 -0.81022424 2.2267692 6.0795082e-39
0.62344205 -0.81732082 2.2412355 1.0601071e-38
0.31060129 -0.79627472 2.2085717 6.1713451e-39
0.62179458 -0.78319061 2.2274287 1.0692905e-38
0.30914664 -0.85401511 2.2870002 5.6192433e-39
0.29474407 -0.84467953 2.2620001 5.61853e-39
0.32414281 -0.82877499 2.2713752 6.4482963e-39
0.63371551 -0.81398684 2.2665379 1.0693628e-38
0.66083211 -0.8217721 2.2873449 1.0601793e-38
0.62817138 -0.79635328 2.25525 1.0603588e-38
0.65483445 -0.79322976 2.2620001 1.0141529e-38
0.31930828 -0.87535292 2.3339999 5.5274106e-39
0.34538615 -0.84772313 2.3310001 6.8192396e-39
0.68119508 -0.81847203 2.3115003 9.9571392e-39
0.70049292 -0.81992906 2.322 8.3919757e-39
0.32780725 -0.90760034 2.3927503 5.2526188e-39
0.33766088 -0.88052928 2.3671999 5.9883915e-39
0.35130194 -0.86520422 2.358 6.7273985e-39
0.4623816 -0.80199349 2.358 1.170814e-38
0.17921422 -0.95673162 2.4399998 5.3520255e-39
0.34235448 -0.91931731 2.424077 5.7118032e-39
0.35914433 -0.9094516 2.4350772 6.1731513e-39
0.45444518 -0.93568623 2.4430001 1.0233749e-38
0.34658411 -0.8961252 2.4050002 6.2638994e-39
0.36005577 -0.88681382 2.4080002 6.9114352e-39
0.17360371 -0.96965981 2.4729998 5.5346189e-39
0.36805606 -0.96583802 2.4805861 5.7143242e-39
0.44655907 -0.95544386 2.483 1.0138668e-38
0.34792286 -0.9427045 2.4530001 5.5277861e-39
0.37489453 -0.92640138 2.4790461 6.9117996e-39
0.44686207 -0.94665867 2.4680002 1.0230503e-38
0.45438531 -0.94478089 2.4779999 9.3110692e-39
0.17045686 -1.002436 2.546 6.4526095e-39
0.18463379 -0.98486221 2.5253847 5.9930747e-39
0.21403533 -0.97912723 2.5290952 6.8210319e-39
0.38817418 -0.97160822 2.5189028 6.6348484e-39
0.42016059 -0.97541338 2.5404339 8.5713195e-39
0.47460598 -0.95715892 2.5217144 1.014047e-38
0.39221486 -0.93467754 2.509455 8.1107043e-39
0.41982886 -0.92975199 2.5371358 9.5861973e-39
0.46086827 -0.94478923 2.5351002 1.0235169e-38
0.50258011 -0.86905831 2.5350001 1.1154243e-38
0.17417161 -1.0075248 2.5824001 6.8206703e-39
0.19237265 -0.99247402 2.5697503 6.1774603e-39
0.21211305 -0.97833824 2.5687602 7.3742e-39
0.42920062 -0.97279632 2.556 1.0046451e-38
0.48084337 -0.95926768 2.5754619 1.0050781e-38
0.50556356 -0.97661799 2.5853336 1.0971297e-38
0.43771523 -0.93746221 2.5606129 1.0231209e-38
0.45725611 -0.94370776 2.5853336 1.0785101e-38
0.48103499 -0.88976127 2.5812359 1.1337917e-38
0.19355425 -1.0059414 2.6176002 6.729911e-39
0.20501247 -1.0070375 2.6450002 8.0177688e-39
0.21345276 -0.98826379 2.6189232 8.1106847e-39
0.48179746 -0.96120864 2.6196668 1.0695783e-38
0.52203661 -0.9870463 2.6223333 1.0786544e-38
0.46696779 -0.94503033 2.6122222 1.1060967e-38
0.51353842 -0.90469402 2.6188571 1.1152807e-38
0.50775123 -0.89652687 2.6110001 1.1152089e-38
0.18794788 -1.0265365 2.6671112 6.7288334e-39
0.20419487 -1.0105928 2.6680002 7.8337391e-39
0.21349566 -0.9889434 2.6569998 8.6645815e-39
0.49075747 -0.97044426 2.6684999 1.0879812e-38
0.50714004 -0.98550254 2.6782858 1.0512834e-38
0.5332821 -0.92187816 2.6680002 1.1154961e-38
0.57597756 -0.93308663 2.6920002 1.1524103e-38
0.17227946 -1.0576034 2.7160003 7.6468283e-39
0.19679788 -1.043207 2.7400002 7.0064951e-39
0.20796883 -1.0182889 2.7260001 8.2950773e-39
0.53283739 -1.0075945 2.7400002 1.0790147e-38
0.49177223 -0.97119027 2.7160001 1.1429388e-38
0.51517224 -0.99335837 2.7173336 1.0788701e-38
0.54779845 -0.93065631 2.7040002 1.1524098e-38
0.56152332 -0.94113266 2.7280004 1.1340071e-38
0.19460887 -1.0553441 2.7720001 7.1908864e-39
0.20272776 -1.0558227 2.7910001 7.4653167e-39
0.20629609 -1.0418785 2.7780001 8.0192065e-39
0.53206909 -1.0106872 2.7753999 1.1432269e-38
0.55865914 -1.036254 2.7650001 1.1523385e-38
0.49741817 -0.9923408 2.7910001 1.0784742e-38
0.51487207 -0.98054838 2.768105 1.1339358e-38
0.58220375 -0.9624483 2.7692857 1.1063488e-38
0.19034125 -1.0916604 2.8430002 7.0958139e-39
0.20419577 -1.0662563 2.8430002 7.9270137e-39
0.57526684 -1.0542167 2.8170002 1.1707411e-38
0.53504932 -1.0090519 2.8251252 1.1433353e-38
0.56210375 -1.0269955 2.8430002 1.1707061e-38
0.51425701 -0.99625725 2.8213336 1.1153885e-38
0.58895242 -0.98326784 2.8170002 1.0970575e-38
0.19585091 -1.0873721 2.8560002 7.1908864e-39
0.53929126 -1.0194587 2.8832858 1.0877659e-38
0.56611609 -1.0299705 2.8734286 1.1524106e-38
0.61106688 -1.0409718 2.8560002 1.170814e-38
0.19725823 -1.103583 2.9110003 7.8337433e-39
0.20198686 -1.103583 2.9110003 7.5593074e-39
0.19725823 -1.0988536 2.9110003 8.0184905e-39
0.20907982 -1.0882124 2.9110003 8.1117651e-39
0.56662649 -1.0326849 2.9138002 1.1338997e-38
0.21094997 -1.1095057 2.9820001 8.3883562e-39
0.20020169 -1.1524773 3.0270002 7.3742e-39
0.20511876 -1.1352648 3.0270002 7.9270165e-39
0.1816635 -1.1857361 3.0880001 6.8203074e-39
0.2207153 -1.1300504 3.0730002 8.9418915e-39
0.19621634 -1.1828166 3.1200001 7.4642405e-39
0.20591371 -1.1703043 3.1136003 8.0184961e-39
0.21285757 -1.1464931 3.1040001 8.4812749e-39
0.20510827 -1.1820886 3.1567142 8.1110462e-39
0.18592106 -1.2225024 3.2046154 7.0054203e-39
0.2113964 -1.2005061 3.2360001 8.2054041e-39
0.2113964 -1.1952486 3.2360001 8.1139273e-39
0.19615942 -1.2361988 3.2890003 8.1106833e-39
0.21054225 -1.2156872 3.2770002 8.1124854e-39
0.1817323 -1.2725058 3.335083 7.1901703e-39
0.19824687 -1.2412533 3.3240001 8.2947116e-39
0.20634611 -1.235853 3.3240001 8.1121238e-39
0.19443794 -1.2775432 3.3990002 7.7426266e-39
0.20433199 -1.2539277 3.3800001 8.4794658e-39
0.20667891 -1.244277 3.3736668 8.2968766e-39
0.18823712 -1.3029938 3.4370003 7.1891011e-39
0.19493678 -1.2862419 3.4370003 8.2021614e-39
0.19146842 -1.3140014 3.4960001 7.3742113e-39
